X            Y           Z            R     G     B
78585.85156 2594.97900 -8362.41113  172   117    91
77848.62500 1398.76282 -7734.93604  172   117    90
77111.45313 202.48831 -7107.44824  171   117    90
76353.35156 -785.90167 -6376.79834  171   117    90
75595.23438 -1774.29956 -5646.13623  171   117    90
74798.25781 -2636.78589 -4702.46387  171   117    90
74001.28125 -3499.24902 -3758.79541  171   117    90
73238.53906 -4537.81006 -2759.13916  170   117    90
72475.83594 -5576.37158 -1759.51270  170   117    90
71765.60156 -6618.89160 -735.71204  170   117    90
71055.37500 -7661.41992 288.08270  170   117    90
70384.51563 -8524.22266 1314.28210  170   117    90
69713.68750 -9387.01367 2340.46338  169   117    90
69141.84375 -9969.79102 3268.58057  169   117    90
68569.99219 -10552.54102 4196.70752  169   117    90
68142.07031 -10974.65332 4872.87842  168   117    90
67714.13281 -11396.77344 5549.05273  168   116    89
67428.93750 -11789.64063 6062.32666  168   116    89
67143.75000 -12182.51172 6575.59473  167   116    89
66894.95313 -12512.97070 6992.15430  167   116    89
66646.16406 -12843.42188 7408.72461  167   116    89
66415.47656 -13085.14453 7711.38428  167   116    89
66184.79688 -13326.83301 8014.00879  166   116    88
65923.53906 -13651.30469 8287.27734  166   116    88
65662.27344 -13975.83105 8560.53418  166   115    88
65419.64844 -14254.10547 8664.28125  166   115    88
65177.02344 -14532.35938 8768.05078  165   115    88
64905.12109 -14923.19336 8999.27148  165   115    88
64633.21875 -15314.00391 9230.48047  165   115    88
64357.22656 -15716.62793 9469.20215  165   115    87
64081.23047 -16119.26758 9707.93164  164   114    87
63806.75781 -16484.55273 9865.26074  164   114    87
63532.29688 -16849.85742 10022.56152  163   114    87
63180.70313 -17346.75000 10100.68066  163   113    86
62829.19531 -17843.70117 10178.78613  162   113    86
62434.80469 -18424.26367 10230.49121  162   113    86
62040.39844 -19004.83984 10282.21680  161   112    85
61754.87500 -19620.28711 10317.42969  161   112    85
61469.39844 -20235.75000 10352.62207  161   112    85
61294.75781 -21011.15625 10356.30273  161   112    85
61120.32422 -21786.59766 10359.85840  161   112    85
60995.82422 -22580.75781 10357.35156  161   112    85
60871.35938 -23374.94727 10354.85059  161   112    85
60727.25781 -24349.88477 10340.02441  160   112    85
60582.77344 -25324.86719 10325.29199  160   112    84
60439.88281 -26284.96680 10303.20996  160   112    84
60297.00781 -27244.98047 10281.12891  160   112    84
60154.96875 -28214.18750 10253.04199  160   112    84
60012.64063 -29183.09375 10224.69141  160   112    84
59868.84375 -30162.27930 10193.49414  160   112    84
59722.16406 -31141.06250 10162.26074  160   112    84
59573.91797 -32129.67383 10129.34668  160   112    84
59424.85938 -33118.36719 10096.56934  160   112    84
79629.51563 29878.95898 -5806.28027  164   112    87
79768.57813 29086.82422 -5741.07275  169   116    90
79907.64063 28294.64258 -5675.88037  172   118    92
79919.23438 27680.07422 -5753.62354  174   119    93
79930.79688 27065.52148 -5831.38184  175   119    93
80092.58594 26462.78125 -6062.38232  176   120    94
80254.38281 25860.00195 -6293.39258  176   120    93
80787.64063 25359.64258 -6694.54102  176   120    93
81320.96875 24859.28516 -7095.68506  176   119    93
81491.19531 24201.71875 -7651.75635  176   119    93
81661.46094 23544.11328 -8207.80664  175   119    92
81678.23438 22915.18164 -8574.23047  175   119    92
81695.04688 22286.28320 -8940.66016  175   118    92
81711.17969 21070.50977 -9366.08203  175   118    92
81727.28906 19854.74219 -9791.50879  175   118    91
81601.21875 18942.32227 -9849.80176  175   118    91
81475.19531 18029.89453 -9908.10449  174   118    91
81368.36719 16504.30078 -9994.82031  174   118    91
81261.56250 14978.74023 -10081.54004  174   118    92
81046.54688 13521.90527 -9984.71680  174   118    92
80831.53906 12065.07813 -9887.89844  174   118    92
80516.87500 10615.37695 -9655.29199  174   118    92
80202.23438 9165.65332 -9422.67090  174   118    92
79787.85156 7740.53223 -9144.45898  173   118    92
79373.38281 6315.37939 -8866.24219  173   118    91
78779.28906 5003.64307 -8414.88379  173   118    91
78185.20313 3691.90698 -7963.52393  173   118    91
77510.08594 2515.83984 -7405.70557  172   118    91
76835.09375 1339.78101 -6847.88135  172   118    91
76154.38281 379.11926 -6213.87939  172   118    91
75473.68750 -581.57367 -5579.87744  172   118    91
74747.72656 -1390.52063 -4709.40576  171   118    91
74021.68750 -2199.49536 -3838.90771  171   118    91
73317.57813 -3292.82007 -2939.75073  171   117    91
72613.40625 -4386.16064 -2040.59082  171   117    91
71901.79688 -5502.91748 -1042.18713  170   118    91
71190.14063 -6619.68213 -43.77274  170   118    91
70468.54688 -7475.36670 973.01288  170   117    90
69746.94531 -8331.10938 1989.79089  170   118    90
69178.35156 -9045.47656 2856.10498  169   117    90
68609.74219 -9759.89063 3722.41138  169   117    90
68192.64063 -10258.39160 4353.91260  169   117    90
67775.55469 -10756.86816 4985.42334  169   117    90
67484.50000 -11195.67578 5485.68164  168   117    90
67193.43750 -11634.40625 5985.94580  168   117    90
66936.85156 -11990.90332 6384.16260  168   117    89
66680.25781 -12347.39648 6782.36768  167   116    89
66439.16406 -12627.21191 7116.26318  167   116    89
66198.03125 -12907.03027 7450.12451  167   116    89
65930.92969 -13253.40430 7736.97217  167   116    89
65663.77344 -13599.79492 8023.81689  167   116    89
65414.39063 -13908.04004 8150.63477  166   116    89
65165.02734 -14216.34766 8277.43262  166   116    89
64892.06250 -14594.47559 8457.87012  166   116    89
64619.07422 -14972.59082 8638.33203  166   116    88
64333.06641 -15397.06641 8901.49902  166   116    88
64047.05078 -15821.51074 9164.68945  165   115    88
63765.24219 -16189.02832 9324.17578  165   115    88
63483.45703 -16556.50586 9483.68262  164   115    88
63118.17969 -17068.80273 9550.02734  164   115    87
62752.89453 -17581.04297 9616.39258  164   114    87
62351.73438 -18158.95313 9665.95117  163   114    87
61950.41406 -18736.77344 9715.59180  163   114    87
61647.32422 -19349.31641 9750.14746  163   114    86
61344.30469 -19961.81250 9784.69043  163   114    86
61168.76172 -20729.29688 9783.06250  162   114    86
60993.68750 -21496.87305 9781.34375  162   113    86
60877.87500 -22289.62891 9772.70996  162   113    86
60761.41797 -23082.31250 9764.18652  162   113    86
60631.51953 -24040.30664 9740.55859  162   113    86
60502.44531 -24998.37695 9716.69141  162   113    86
60368.98828 -25961.51367 9684.15332  162   113    86
60236.05859 -26924.64844 9651.54590  162   113    85
60104.23047 -27896.60156 9610.69434  162   113    85
59972.94531 -28868.63281 9569.69238  161   113    85
59837.75391 -29851.62109 9526.03320  161   113    85
59702.82813 -30834.85742 9482.50586  161   113    85
59562.69531 -31826.36133 9436.58496  161   113    85
59423.36719 -32817.80859 9390.70410  162   114    85
79596.71875 29220.31250 -6273.00586  169   116    90
79664.81250 28425.07227 -6184.74512  173   118    92
79743.20313 27722.93555 -6173.13086  175   119    93
79821.56250 27020.80469 -6161.53174  175   120    93
79936.50781 26422.53125 -6336.09961  176   120    94
80051.50781 25824.27344 -6510.68555  176   120    94
80352.35938 25243.12305 -6743.58789  176   120    93
80653.24219 24661.99609 -6976.50244  176   120    93
80911.68750 23972.79688 -7369.85742  176   119    93
81170.18750 23283.64648 -7763.22168  176   119    93
81246.82813 22620.19922 -8135.83691  175   119    93
81323.52344 21956.79102 -8508.45898  175   119    92
81309.66406 20891.08008 -8863.70801  175   118    92
81295.85156 19825.46484 -9218.95508  175   118    92
81174.10156 18872.44336 -9281.30664  175   118    92
81052.37500 17919.51563 -9343.66113  175   118    92
80898.67188 16587.56836 -9384.83887  174   118    92
80745.02344 15255.60742 -9426.02637  174   118    92
80528.88281 13891.83887 -9336.63965  174   118    92
80312.69531 12528.03906 -9247.25000  174   118    92
80022.21094 11155.73047 -9056.45801  174   118    92
79731.78125 9783.42969 -8865.65820  174   119    92
79352.40625 8436.78223 -8613.81152  174   118    92
78972.98438 7090.11035 -8361.95801  173   118    92
78441.90625 5835.70654 -7971.31396  173   118    92
77910.85156 4581.25635 -7580.66602  173   118    92
77307.39844 3467.11792 -7085.80957  173   118    92
76703.93750 2352.93262 -6590.96045  172   118    91
76076.89844 1399.59375 -6027.72656  172   118    91
75449.85156 446.15344 -5464.48682  172   118    91
74765.32813 -423.75320 -4678.74561  172   118    91
74080.82813 -1293.65979 -3893.01880  172   118    91
73406.25781 -2322.87256 -3087.31152  171   118    91
72731.61719 -3352.13623 -2281.60156  171   118    91
72014.00781 -4418.97461 -1335.44507  171   118    91
71296.40625 -5485.82471 -389.27505  171   118    91
70583.85156 -6449.77539 569.31976  171   118    91
69871.32031 -7413.73389 1527.94934  170   118    91
69295.06250 -8200.24805 2357.95947  170   118    91
68718.79688 -8986.79395 3187.96387  170   118    91
68291.32813 -9590.17188 3812.15723  169   118    91
67863.86719 -10193.56445 4436.33252  169   117    90
67562.10938 -10649.80176 4938.82813  169   117    90
67260.35156 -11106.03516 5441.31348  169   117    90
66990.94531 -11489.68359 5840.71973  168   117    90
66721.53906 -11873.34473 6240.10596  168   117    90
66468.63281 -12177.67871 6569.10059  168   117    90
66215.71875 -12481.97754 6898.08350  168   117    90
65945.97656 -12841.18945 7184.40771  168   117    90
65676.22656 -13200.41016 7470.73975  167   117    90
65415.19141 -13565.39648 7645.05176  167   117    90
65154.17969 -13930.34863 7819.37891  167   117    89
64878.77734 -14302.79395 7979.88232  167   117    89
64603.37500 -14675.18066 8140.40869  167   117    89
64311.81250 -15099.97070 8384.45410  167   116    89
64020.21875 -15524.71777 8628.51660  166   116    89
63721.08984 -15915.59668 8770.91895  166   116    89
63421.92969 -16306.49023 8913.30566  166   116    89
63054.37109 -16816.71094 8977.54102  165   116    88
62686.80859 -17326.94531 9041.74902  165   115    88
62284.36719 -17900.01367 9093.81738  165   115    88
61881.94531 -18473.07227 9145.85742  164   115    88
61561.82422 -19081.02734 9180.99609  164   115    88
61242.17188 -19689.09180 9216.04004  164   115    87
61069.10547 -20451.23047 9211.44629  164   115    87
60896.13281 -21213.37305 9206.81934  164   115    87
60789.30469 -22000.77148 9192.57422  163   115    87
60682.28125 -22788.17578 9178.34766  163   115    87
60563.27734 -23728.76172 9148.24121  163   115    87
60444.09766 -24669.39648 9118.20215  163   115    87
60321.31250 -25632.61133 9073.45605  163   115    87
60198.47266 -26595.58203 9028.71875  163   115    87
60074.72656 -27572.19727 8974.89551  163   115    87
59950.74219 -28548.66797 8921.09375  163   115    86
59825.98438 -29535.43750 8862.94238  163   115    86
59699.80469 -30522.02734 8805.25586  163   115    86
59571.75781 -31517.04102 8745.05762  163   115    86
59442.63672 -32512.40625 8685.09473  163   115    87
79421.96094 28555.51563 -6693.61328  173   118    92
79567.12500 27765.81836 -6592.64160  175   120    93
79712.35156 26976.08203 -6491.66113  176   120    93
79780.43750 26382.33594 -6609.82471  177   121    94
79848.56250 25788.57422 -6727.96582  176   120    94
79917.03906 25126.61719 -6792.64746  176   120    94
79985.47656 24464.66992 -6857.31543  176   120    93
80332.24219 23743.88477 -7087.97803  176   120    93
80678.95313 23023.07813 -7318.63965  176   119    93
80815.48438 22325.18359 -7697.44629  176   119    93
80951.93750 21627.30469 -8076.25586  175   119    93
80908.20313 20711.69922 -8361.33105  175   119    92
80864.46094 19796.10742 -8646.40039  175   118    92
80747.03125 18802.60156 -8712.80762  175   118    92
80629.55469 17809.12109 -8779.21094  175   119    92
80429.00781 16670.77344 -8774.87012  175   119    92
80228.39844 15532.52148 -8770.51074  174   119    92
80011.14063 14261.74902 -8688.55469  174   119    92
79793.84375 12991.00098 -8606.60254  174   119    92
79527.59375 11696.13086 -8457.61816  174   119    92
79261.30469 10401.19824 -8308.62500  174   119    92
78916.96094 9133.05566 -8083.15430  174   119    92
78572.59375 7864.82617 -7857.67773  174   119    92
78104.57813 6667.73926 -7527.74463  173   119    92
77636.52344 5470.62109 -7197.80469  173   119    92
77104.64063 4418.37207 -6765.92188  173   119    92
76572.79688 3366.13892 -6334.02637  173   119    92
75999.41406 2420.02539 -5841.55664  173   119    92
75425.97656 1473.89600 -5349.08789  172   119    92
74782.96094 543.02606 -4648.10938  172   119    92
74139.96875 -387.79691 -3947.11206  172   119    92
73494.92969 -1352.92505 -3234.86060  172   119    92
72849.85938 -2318.02979 -2522.60864  172   118    92
72126.26563 -3335.00439 -1628.69397  171   118    92
71402.66406 -4351.97119 -734.77734  171   118    91
70699.14844 -5424.16455 165.64627  171   118    91
69995.67969 -6496.36182 1066.08850  171   118    91
69411.71875 -7355.05127 1859.80737  170   118    91
68827.82031 -8213.73730 2653.53101  170   118    91
68390.01563 -8921.98340 3270.39600  170   118    91
67952.19531 -9630.27344 3887.26367  170   118    91
67639.75781 -10103.95020 4391.98145  169   118    91
67327.28906 -10577.64355 4896.68457  169   118    91
67045.02344 -10988.48730 5297.27295  169   118    91
66762.78906 -11399.30762 5697.87256  169   117    90
66498.07813 -11728.13379 6021.95801  169   118    90
66233.35938 -12056.96289 6346.03955  168   117    90
65961.02344 -12428.99414 6631.83545  168   117    90
65688.68750 -12801.04492 6917.65430  168   117    90
65415.98438 -13222.72266 7139.51172  168   117    90
65143.30859 -13644.39551 7361.33740  168   117    90
64865.47656 -14011.07715 7501.90625  168   117    90
64587.61719 -14377.75098 7642.47119  168   117    90
64290.51172 -14802.85156 7867.40723  167   117    90
63993.41406 -15227.93262 8092.34668  167   117    90
63676.90625 -15642.21094 8217.64551  167   117    90
63360.37500 -16056.41895 8342.95313  167   117    89
62990.57422 -16564.64844 8405.03906  166   117    89
62620.74219 -17072.85742 8467.10938  166   117    89
62217.01563 -17641.07031 8521.65918  166   116    89
61813.33203 -18209.31445 8576.19238  166   116    89
61476.39453 -18812.77930 8611.87793  165   116    89
61139.91406 -19416.34375 8647.42285  165   116    89
60969.51953 -20173.13477 8639.81348  165   116    88
60798.98828 -20929.93555 8632.23340  165   116    88
60700.94141 -21711.95313 8612.41406  165   116    88
60603.28516 -22493.98828 8592.52148  165   116    88
60495.20703 -23417.28906 8556.02344  165   116    88
60387.18359 -24340.52539 8519.57129  164   116    88
60274.01563 -25303.63477 8462.77441  164   116    88
60160.63672 -26266.65625 8406.02051  164   116    88
60045.30469 -27247.81641 8339.11914  164   116    88
59929.76172 -28228.91992 8272.26074  164   116    88
59814.21094 -29219.06055 8200.37109  164   116    87
59698.37500 -30209.33398 8128.22559  164   116    87
59580.46484 -31208.01953 8053.95117  164   116    87
59459.94141 -32206.50195 7980.07373  164   116    88
79383.46875 27908.46289 -7146.09668  175   120    94
79460.81250 27126.79102 -7023.27881  176   120    94
79555.91406 26473.57031 -7012.72803  177   121    94
79651.00781 25820.27344 -7002.18457  177   121    94
79708.57813 25126.03125 -7039.88818  176   120    94
79766.12500 24431.96094 -7077.57520  176   120    94
79965.29688 23740.86719 -7190.89063  176   120    93
80164.44531 23049.84180 -7304.18994  176   120    93
80325.22656 22313.66797 -7559.41211  176   119    93
80485.96875 21577.48633 -7814.62793  176   119    93
80472.62500 20689.16992 -8010.58545  175   119    93
80459.28906 19800.75977 -8206.55078  175   119    92
80346.88281 18879.11719 -8219.17285  175   119    92
80234.46094 17957.42969 -8231.78613  175   119    92
80015.61719 16875.94141 -8220.68750  175   119    92
79796.78125 15794.49414 -8209.58496  175   119    92
79575.79688 14585.77051 -8161.25586  175   119    93
79354.75000 13376.96094 -8112.93555  174   119    92
79110.52344 12162.16992 -7974.71973  174   119    93
78866.25000 10947.41016 -7836.49902  174   119    93
78560.29688 9769.87012 -7645.96533  174   119    93
78254.33594 8592.35449 -7455.41553  174   119    92
77833.89063 7417.50000 -7165.01953  174   119    92
77413.38281 6242.66162 -6874.63037  174   119    92
76926.51563 5186.44775 -6492.71924  173   119    92
76439.64844 4130.21826 -6110.81201  173   119    92
75912.66406 3213.52832 -5673.17334  173   119    92
75385.64063 2296.86963 -5235.52783  173   119    92
74807.28906 1391.83850 -4663.27490  173   119    92
74228.95313 486.74094 -4091.03638  172   119    92
73593.52344 -447.36890 -3406.10254  172   119    92
72958.10156 -1381.45142 -2721.16089  172   119    92
72256.88281 -2395.94775 -1926.62183  172   119    92
71555.61719 -3410.44434 -1132.06458  172   119    92
70842.25000 -4536.73486 -272.19656  171   119    92
70128.87500 -5663.03369 587.69513  171   119    92
69532.43750 -6613.06592 1366.81348  171   119    92
68936.00000 -7563.05518 2145.93774  171   119    92
68513.32031 -8272.39160 2757.69629  170   119    91
68090.62500 -8981.71191 3369.48657  170   118    91
67755.54688 -9499.96973 3851.33618  170   118    91
67420.46094 -10018.19238 4333.16650  170   118    91
67115.35156 -10455.50098 4742.95508  169   118    91
66810.27344 -10892.79785 5152.75684  169   118    91
66535.77344 -11256.27051 5473.56787  169   118    91
66261.29688 -11619.72852 5794.37061  169   118    91
65984.53125 -12016.72656 6080.86523  169   118    91
65707.76563 -12413.79883 6367.34424  169   118    91
65428.84766 -12865.32129 6616.51318  169   118    91
65149.86328 -13316.86328 6865.67627  169   118    91
64866.14063 -13704.57910 7022.54395  169   118    91
64582.42969 -14092.31543 7179.41113  169   118    91
64281.62500 -14507.31738 7365.28418  168   118    91
63980.82422 -14922.33789 7551.17285  168   118    91
63650.20703 -15369.58984 7663.03125  168   118    91
63319.58594 -15816.82520 7774.90576  168   118    90
62950.65234 -16319.57813 7843.52246  168   118    90
62581.73438 -16822.33398 7912.15869  167   118    90
62178.67188 -17381.28711 7965.02246  167   118    90
61775.59375 -17940.20898 8017.88281  167   118    90
61437.46875 -18541.42383 8053.00928  167   117    90
61099.88281 -19142.71875 8088.07129  167   117    90
60920.82422 -19892.04492 8077.54980  166   117    90
60741.71094 -20641.31641 8067.00195  166   117    89
60648.10938 -21418.68750 8043.19531  166   117    89
60554.52344 -22196.01172 8019.35303  166   117    89
60461.41406 -23053.16797 7989.40137  166   117    89
60368.36719 -23910.27930 7959.51074  166   117    89
60256.91016 -24916.13867 7877.93799  166   117    89
60146.31641 -25921.98438 7796.18066  166   117    89
60039.01563 -26912.90820 7711.18018  166   117    89
59932.31250 -27903.88281 7626.16406  165   117    89
59822.96094 -28898.80469 7538.56934  165   117    89
59712.76953 -29893.90625 7450.95898  165   117    89
59603.57031 -30893.62500 7361.61133  165   117    89
59493.28906 -31893.37109 7272.09277  166   118    89
79209.28125 27277.52930 -7554.91846  176   120    94
79331.36719 26564.78125 -7415.65430  177   121    95
79453.42969 25851.93164 -7276.40332  177   121    94
79500.09375 25125.53711 -7287.12061  177   121    94
79546.74219 24399.12109 -7297.84277  176   121    94
79598.39844 23737.86523 -7293.79297  176   120    94
79649.97656 23076.56836 -7289.73535  176   120    94
79834.96875 22302.09766 -7421.37402  176   120    93
80019.91406 21527.68164 -7553.00049  176   120    93
80037.02344 20666.57813 -7659.84082  176   119    93
80054.12500 19805.45703 -7766.69678  175   119    93
79946.75000 18955.60352 -7725.52930  175   119    93
79839.37500 18105.72461 -7684.36768  175   119    93
79602.25781 17081.11133 -7666.50684  175   119    93
79365.14063 16056.48926 -7648.65186  175   119    93
79140.40625 14909.70508 -7633.95605  175   119    93
78915.68750 13762.90527 -7619.26807  175   119    93
78693.48438 12628.24023 -7491.82373  175   119    93
78471.21875 11493.59766 -7364.37549  175   120    93
78203.64844 10406.76367 -7208.76074  174   120    93
77936.07813 9319.85840 -7053.15332  174   120    93
77563.15625 8167.29199 -6802.30957  174   120    93
77190.27344 7014.73389 -6551.46240  174   120    93
76748.35156 5954.52344 -6219.52344  174   120    93
76306.47656 4894.29785 -5887.58154  174   120    93
75825.90625 4007.07837 -5504.77783  174   120    93
75345.31250 3119.86670 -5121.97754  173   120    93
74831.61719 2240.58838 -4678.46631  173   120    93
74317.93750 1361.29443 -4234.95508  173   120    93
73692.13281 458.22635 -3577.34253  173   120    93
73066.31250 -444.86133 -2919.72778  173   119    93
72387.45313 -1456.88354 -2224.54102  172   119    92
71708.60938 -2468.92505 -1529.35815  172   119    92
70985.33594 -3649.33716 -710.02527  172   119    92
70262.03125 -4829.69824 109.28673  172   119    92
69653.09375 -5871.04150 873.82654  171   119    92
69044.14063 -6912.39258 1638.35510  171   119    92
68636.62500 -7622.78662 2245.02588  171   119    92
68229.07031 -8333.18848 2851.69946  171   119    92
67871.32031 -8895.95801 3310.67334  171   119    92
67513.62500 -9458.74219 3769.65405  170   119    92
67185.67188 -9922.52246 4188.66064  170   119    92
66857.72656 -10386.30273 4607.65527  170   119    92
66573.48438 -10784.39648 4925.17383  170   119    92
66289.25000 -11182.45508 5242.70557  170   119    92
66008.03125 -11604.52930 5529.87207  170   119    92
65726.84375 -12026.55273 5817.02637  170   119    92
65441.66406 -12507.92773 6093.52002  170   119    92
65156.47266 -12989.29883 6370.01758  170   119    92
64866.82813 -13398.06152 6543.17725  170   119    92
64577.19141 -13806.84473 6716.33301  169   119    92
64272.73047 -14211.78223 6863.17334  169   119    92
63968.26563 -14616.72363 7009.99463  169   119    91
63623.53125 -15096.99512 7108.41260  169   119    91
63278.79688 -15577.23926 7206.81885  169   119    91
62910.74609 -16074.53613 7282.03320  169   119    91
62542.71094 -16571.76953 7357.22363  169   119    91
62140.30078 -17121.48047 7408.38281  168   119    91
61737.88281 -17671.11914 7459.56982  168   119    91
61398.92969 -18270.10742 7494.13721  168   119    91
61059.89063 -18869.09570 7528.71045  168   119    91
60872.01563 -19610.87695 7515.27197  168   119    91
60684.38281 -20352.68555 7501.80225  168   118    91
60595.17969 -21125.38672 7473.99365  168   118    91
60506.00000 -21898.06641 7446.15674  167   118    90
60427.93359 -22689.10742 7422.87061  167   118    90
60349.32813 -23480.05664 7399.62207  167   118    90
60240.22266 -24528.65820 7293.08936  167   118    90
60130.53516 -25577.17578 7186.63818  167   118    90
60031.51172 -26577.78906 7083.44727  167   118    90
59932.98438 -27578.43945 6980.29443  167   118    90
59830.72656 -28578.46680 6876.89111  167   118    90
59728.91406 -29578.68359 6773.55762  167   118    90
59628.52344 -30579.43555 6668.92383  167   118    90
59528.28125 -31580.20117 6564.44385  167   119    90
79162.18750 26632.59961 -7990.24414  177   122    95
79246.25781 25880.70313 -7830.11377  177   121    95
79316.32813 25093.68750 -7720.43604  177   121    95
79386.42188 24306.67383 -7610.77246  177   121    94
79375.19531 23642.93750 -7616.10352  177   121    94
79363.90625 22979.14648 -7621.43701  176   120    94
79446.30469 22202.93945 -7652.91064  176   120    94
79528.64844 21426.70703 -7684.37158  176   120    93
79578.20313 20593.06641 -7723.38086  176   120    93
79627.72656 19759.37891 -7762.38330  176   119    93
79560.04688 18919.28711 -7680.65967  176   120    93
79492.32813 18079.15039 -7598.90820  176   120    93
79307.83594 17116.82031 -7528.39697  175   120    93
79123.39063 16154.43652 -7457.87500  175   120    93
78898.80469 15088.23926 -7427.33301  175   120    93
78674.32813 14021.96484 -7396.79932  175   120    93
78431.69531 12954.04785 -7262.06055  175   120    93
78189.07813 11886.11621 -7127.33154  175   120    93
77894.73438 10885.19336 -6942.33350  175   120    93
77600.40625 9884.28613 -6757.33936  175   120    93
77246.39844 8750.59863 -6512.26123  174   120    93
76892.39844 7616.91113 -6267.18311  174   120    93
76495.14063 6542.31250 -5973.28809  174   120    93
76097.89063 5467.72168 -5679.39307  174   120    93
75665.28906 4633.50244 -5345.75146  174   120    93
75232.74219 3799.32300 -5012.11084  174   120    93
74780.38281 2962.80786 -4646.51025  174   120    93
74328.07031 2126.30859 -4280.91064  173   120    93
73734.87500 1235.95398 -3701.00269  173   120    93
73141.62500 345.59918 -3121.10547  173   120    93
72508.67188 -691.30249 -2499.92310  173   120    93
71875.68750 -1728.18079 -1878.73645  173   120    93
71158.37500 -2936.76489 -1090.92786  172   120    93
70441.12500 -4145.37988 -303.11658  172   120    93
69853.88281 -5167.80225 407.15118  172   120    93
69266.64844 -6190.19336 1117.41895  172   120    93
68845.75000 -6918.64404 1705.62354  172   120    92
68424.86719 -7647.10205 2293.82202  171   119    92
68063.10156 -8220.68359 2751.49341  171   119    92
67701.32813 -8794.30371 3209.17065  171   119    92
67364.07813 -9285.07422 3618.95654  171   119    92
67026.77344 -9775.86035 4028.77100  170   119    92
66722.59375 -10215.11426 4348.80762  170   119    92
66418.43750 -10654.32813 4668.83008  170   119    92
66118.51563 -11117.22949 4962.72852  170   119    92
65818.64063 -11580.15820 5256.64404  170   119    92
65532.08594 -12066.44141 5533.62891  170   119    92
65245.56250 -12552.69238 5810.61523  170   120    92
64947.60938 -12989.83984 5994.71289  170   120    92
64649.67969 -13426.97559 6178.78320  170   120    92
64342.26953 -13837.16699 6320.90527  170   120    92
64034.86719 -14247.33496 6463.02393  170   120    92
63666.18359 -14766.86035 6568.62451  170   120    92
63297.52734 -15286.40137 6674.23584  170   120    92
62919.29297 -15793.14355 6746.54883  170   120    92
62541.08203 -16299.90918 6818.86963  169   120    92
62134.16016 -16846.99023 6868.03125  169   119    92
61727.27734 -17394.06836 6917.18457  169   119    92
61383.80859 -17993.50586 6946.18018  169   119    92
61040.30859 -18592.93750 6975.19189  169   119    92
60851.89844 -19321.19141 6961.39160  169   119    91
60663.86719 -20049.51953 6947.58838  169   119    91
60577.56250 -20817.38672 6917.71631  168   119    91
60491.25781 -21585.25586 6887.82861  168   119    91
60417.13672 -22376.48633 6858.19727  168   119    91
60343.41406 -23167.74023 6828.56250  168   119    91
60243.40625 -24206.11133 6703.33447  168   119    91
60143.15234 -25244.33398 6578.04883  168   119    91
60047.50000 -26251.57813 6456.04541  168   119    91
59952.99219 -27259.09570 6334.19629  168   119    91
59856.26172 -28260.16016 6213.28760  168   119    91
59759.83203 -29261.45703 6091.98633  167   119    91
59665.35938 -30263.46680 5972.38281  167   119    91
59570.10938 -31265.34180 5853.01465  168   120    91
79039.10938 25909.49609 -8383.83789  177   122    95
79132.60156 25061.83008 -8153.76416  177   121    95
79226.10156 24214.22070 -7923.69824  177   121    95
79151.98438 23547.99609 -7938.41406  177   121    94
79077.84375 22881.76367 -7953.12744  177   121    94
79057.62500 22103.77344 -7884.42920  176   121    94
79037.35156 21325.73438 -7815.74609  176   120    94
79119.37500 20519.53320 -7786.90674  176   120    94
79201.35156 19713.34766 -7758.06641  176   120    93
79173.33594 18882.93359 -7635.77051  176   120    93
79145.28906 18052.56836 -7513.46826  176   120    93
79013.46875 17152.47656 -7390.29199  176   120    93
78881.64063 16252.40820 -7267.09961  176   120    93
78657.32031 15266.69629 -7220.70850  175   120    93
78432.93750 14281.02344 -7174.33594  175   120    93
78169.93750 13279.81738 -7032.31396  175   120    94
77906.88281 12278.62598 -6890.28857  175   120    94
77585.81250 11363.67871 -6675.89990  175   120    94
77264.73438 10448.67578 -6461.52734  175   120    94
76929.63281 9333.87402 -6222.22412  175   120    94
76594.49219 8219.08789 -5982.90869  175   120    94
76241.89844 7130.15625 -5727.04980  175   120    94
75889.32031 6041.16943 -5471.19531  175   120    94
75504.71094 5259.97412 -5186.72021  174   120    94
75120.14844 4478.80225 -4902.24951  174   121    94
74729.18750 3685.03540 -4614.55322  174   120    94
74338.21094 2891.28369 -4326.86475  174   120    93
73777.58594 2013.65808 -3824.67212  174   120    93
73216.92188 1136.01660 -3322.48657  173   120    93
72629.85156 74.32137 -2775.31250  173   120    93
72042.76563 -987.36615 -2228.13428  173   120    93
71331.47656 -2224.25122 -1471.82776  173   120    93
70620.21094 -3461.06958 -715.53931  173   120    93
70054.64063 -4464.52441 -59.52749  173   120    93
69489.07813 -5467.98682 596.48431  172   120    93
69054.85156 -6214.46191 1166.23340  172   120    93
68620.59375 -6960.96484 1735.95569  172   120    93
68254.82813 -7545.41309 2192.32422  172   120    93
67889.06250 -8129.88135 2648.69067  172   120    93
67542.46094 -8647.67285 3049.27075  171   120    93
67195.83594 -9165.41309 3449.89404  171   120    93
66871.74219 -9645.81152 3772.41943  171   120    93
66547.61719 -10126.19434 4094.94312  171   120    93
66229.01563 -10629.97754 4395.60645  171   120    93
65910.42969 -11133.74121 4696.26611  171   120    93
65622.51563 -11624.93164 4973.73975  171   120    93
65334.61328 -12116.11035 5251.23682  171   120    93
65028.35547 -12581.61816 5446.23389  171   120    93
64722.17969 -13047.12207 5641.23682  171   120    93
64411.80469 -13462.54004 5778.64111  171   120    93
64101.40625 -13877.95117 5916.03857  171   120    93
63708.81641 -14436.75391 6028.85205  171   120    93
63316.27734 -14995.53613 6141.62988  171   120    93
62927.83594 -15511.75977 6211.08057  170   120    93
62539.43359 -16028.02637 6280.52344  170   120    93
62128.06641 -16572.52344 6327.66699  170   120    93
61716.67969 -17117.00000 6374.79932  170   120    92
61368.67578 -17716.89844 6398.23486  170   120    92
61020.67188 -18316.78125 6421.67041  170   120    92
60831.95703 -19031.55078 6407.46875  170   120    92
60643.66406 -19746.38086 6393.28613  170   120    92
60560.08984 -20509.39648 6361.38965  169   120    92
60476.41406 -21272.42773 6329.54541  169   120    92
60406.64063 -22063.92188 6293.58887  169   120    92
60336.99609 -22855.43750 6257.62207  169   120    92
60246.65234 -23883.48242 6113.62158  169   120    92
60156.05469 -24911.45898 5969.70020  169   120    92
60065.80859 -25925.55469 5828.94971  169   120    92
59974.79688 -26939.66602 5688.10010  169   120    92
59884.03516 -27942.05664 5549.46973  168   120    92
59792.13672 -28944.39453 5410.93359  168   120    92
59704.82422 -29947.49609 5276.47754  168   120    91
59615.10547 -30950.48438 5141.86768  169   121    92
78904.53125 25161.05859 -8803.51172  177   122    95
78950.53125 24335.20117 -8599.20215  177   122    95
78902.36719 23613.42188 -8538.46680  177   121    95
78854.14063 22891.65820 -8477.72656  177   121    94
78821.31250 22106.93750 -8343.88184  177   121    94
78788.42969 21322.27930 -8210.04395  177   121    94
78861.25781 20502.04883 -8065.49170  176   120    94
78934.11719 19681.87500 -7920.95020  176   120    94
78870.21875 18837.44531 -7777.32520  176   120    94
78806.29688 17993.00195 -7633.69873  176   120    94
78714.83594 17117.54492 -7457.75488  176   120    94
78623.38281 16242.12598 -7281.81152  176   120    94
78396.92188 15321.00098 -7203.61523  176   120    94
78170.48438 14399.83594 -7125.40967  176   121    94
77931.44531 13442.84082 -6998.67578  176   121    94
77692.44531 12485.83789 -6871.95020  176   121    94
77390.78906 11576.29395 -6669.84863  175   121    94
77089.14844 10666.74121 -6467.77100  175   121    94
76778.88281 9620.35840 -6245.40771  175   121    94
76468.65625 8574.05273 -6023.04688  175   121    94
76113.17188 7527.85986 -5740.67871  175   121    94
75757.67969 6481.65088 -5458.32422  175   121    94
75391.35938 5683.03467 -5186.86133  175   121    94
75025.10156 4884.40332 -4915.41113  175   121    94
74652.98438 4126.06934 -4646.53760  175   121    94
74280.88281 3367.70435 -4377.66406  174   121    94
73780.77344 2507.96362 -3949.49512  174   121    94
73280.61719 1648.26953 -3521.33521  174   121    94
72721.85938 630.04840 -3014.65308  174   121    94
72163.15625 -388.15677 -2507.98999  174   121    94
71497.32031 -1574.04736 -1833.56726  173   121    94
70831.57813 -2759.89453 -1159.13855  173   121    94
70272.32813 -3754.23096 -525.75854  173   121    94
69713.11719 -4748.53564 107.60331  173   121    94
69274.52344 -5502.88330 646.58606  173   121    93
68835.92969 -6257.24658 1185.55530  173   121    93
68459.44531 -6865.52246 1635.87878  172   121    93
68082.98438 -7473.81006 2086.20557  172   120    93
67729.25000 -8022.51611 2472.87280  172   120    93
67375.51563 -8571.26855 2859.54028  172   120    93
67044.21094 -9075.79688 3188.58545  172   120    93
66712.92188 -9580.34863 3517.63428  172   121    93
66383.28125 -10112.92090 3822.62036  172   121    93
66053.66406 -10645.48242 4127.61768  172   121    93
65758.32031 -11146.93652 4402.36670  172   121    93
65463.01563 -11648.40137 4677.11523  172   121    93
65144.94922 -12143.14746 4879.37939  172   121    93
64826.84375 -12637.89746 5081.63623  172   121    93
64507.63672 -13068.40430 5220.91602  171   121    93
64188.40234 -13498.93945 5360.20166  171   121    93
63791.01953 -14068.86621 5492.04395  171   121    93
63393.61328 -14638.79297 5623.88037  171   121    93
62988.05469 -15176.31836 5686.88721  171   121    93
62582.46875 -15713.85156 5749.88281  171   121    93
62157.19141 -16271.55469 5792.37500  171   121    93
61731.92969 -16829.22266 5834.86133  171   121    93
61386.92188 -17431.89844 5853.74170  171   121    93
61041.92578 -18034.52734 5872.62402  171   121    93
60853.68750 -18709.52930 5872.76855  170   121    93
60665.92969 -19384.60742 5872.90381  170   121    93
60581.69531 -20161.62500 5832.65186  170   121    93
60497.20703 -20938.60938 5792.39258  170   121    93
60427.64453 -21735.56641 5745.52441  170   121    93
60357.95703 -22532.45703 5698.66992  170   121    93
60270.90234 -23562.99609 5529.72021  170   121    93
60182.90234 -24593.41406 5360.75928  170   121    92
60097.79297 -25610.56641 5197.04443  170   121    92
60012.07813 -26627.54492 5033.00732  170   121    92
59926.36328 -27631.27734 4877.60889  169   121    92
59838.55078 -28634.73828 4722.25635  169   121    92
59751.14453 -29634.23047 4572.38281  169   121    92
59666.70703 -30634.04102 4422.30518  170   121    93
78675.01563 24456.07227 -9274.71387  177   122    95
78652.74219 23678.77734 -9138.51367  177   122    95
78630.47656 22901.53516 -9002.32324  177   121    95
78585.00000 22110.13281 -8803.32813  177   121    95
78539.53125 21318.72266 -8604.33984  177   121    94
78603.16406 20484.55859 -8344.07910  177   121    94
78666.82031 19650.40820 -8083.82275  177   121    94
78567.08594 18791.91211 -7918.87451  176   121    94
78467.35938 17933.42969 -7753.91260  176   121    94
78416.25781 17082.64453 -7525.23096  176   121    94
78365.08594 16231.82910 -7296.53809  176   121    94
78136.54688 15375.27344 -7186.52246  176   121    94
77908.03125 14518.67188 -7076.49316  176   121    94
77693.00000 13605.84863 -6965.05811  176   121    94
77477.95313 12693.04883 -6853.60693  176   121    94
77195.75000 11788.89355 -6663.79932  176   121    94
76913.53906 10884.81543 -6474.00684  176   121    94
76628.19531 9906.88086 -6268.59424  176   121    94
76342.83594 8928.97852 -6063.18555  176   121    94
75984.42188 7925.54004 -5754.31299  175   121    94
75626.05469 6922.14063 -5445.43213  175   121    94
75278.06250 6106.09570 -5187.01318  175   121    94
74930.03125 5290.01172 -4928.57617  175   121    94
74576.77344 4567.04883 -4678.51563  175   121    94
74223.53125 3844.07788 -4428.45898  175   121    94
73783.92188 3002.30005 -4074.33130  175   121    94
73344.32031 2160.49902 -3720.17822  174   121    94
72813.89063 1185.79517 -3254.01196  174   121    94
72283.46875 211.06401 -2787.83813  174   121    94
71663.21094 -923.82391 -2195.28418  174   121    94
71042.90625 -2058.75513 -1602.74878  174   121    94
70490.02344 -3043.91797 -992.00928  174   121    94
69937.15625 -4029.13550 -381.28940  173   121    94
69494.19531 -4791.30859 126.93111  173   121    94
69051.28906 -5553.52100 635.14276  173   121    94
68664.07031 -6185.63184 1079.45459  173   121    94
68276.88281 -6817.75830 1523.73450  173   121    94
67916.03906 -7397.40234 1896.46545  173   121    94
67555.20313 -7977.05811 2269.19458  172   121    94
67216.68750 -8505.77832 2604.75146  172   121    94
66878.21094 -9034.52246 2940.29639  172   121    94
66537.57813 -9595.84180 3249.63525  172   121    94
66196.92188 -10157.23047 3558.95508  172   121    94
65894.17188 -10668.95996 3830.97705  172   121    94
65591.39844 -11180.70117 4103.00537  172   121    94
65261.48047 -11704.69238 4312.53564  172   122    94
64931.53125 -12228.69531 4522.04688  172   122    94
64603.49609 -12674.28418 4663.20557  172   122    94
64275.43359 -13119.91602 4804.37256  172   122    94
63873.20703 -13700.99902 4955.24170  172   122    94
63471.02734 -14282.06152 5106.11963  172   122    94
63048.26172 -14840.88086 5162.68408  172   122    94
62625.53516 -15399.66406 5219.23828  172   122    94
62186.31641 -15970.56250 5257.08545  172   122    94
61747.13281 -16541.46484 5294.92822  172   122    94
61405.14844 -17146.89844 5309.24121  172   122    94
61063.17188 -17752.35547 5323.55420  171   122    94
60875.30859 -18387.51953 5338.06787  171   122    94
60687.96484 -19022.77539 5352.56250  171   122    94
60603.18750 -19813.81445 5303.90234  171   122    94
60518.21484 -20604.80859 5255.23193  171   122    94
60449.09375 -21407.24219 5197.52344  171   122    93
60380.28125 -22209.67188 5139.73486  171   122    93
60296.22656 -23242.64453 4945.74023  171   122    93
60212.00000 -24275.52344 4751.82275  171   122    93
60130.55859 -25295.58789 4565.08594  171   122    93
60049.66797 -26315.56641 4378.26221  170   122    93
59967.17188 -27320.23633 4205.94287  170   122    93
59884.46484 -28324.89453 4033.99683  170   122    93
59801.66016 -29321.08398 3868.87549  170   122    93
59717.90234 -30317.19922 3703.22510  171   122    93
78439.35938 23747.27344 -9757.68359  178   122    95
78414.56250 22953.21680 -9593.44727  177   122    95
78373.76563 22145.91016 -9377.78223  177   122    95
78332.94531 21338.61133 -9162.11230  177   121    95
78356.68750 20489.58008 -8884.96777  177   121    94
78380.44531 19640.55664 -8607.83496  177   121    94
78327.57813 18738.40625 -8332.11914  177   121    94
78274.71875 17836.18555 -8056.40967  177   121    94
78182.87500 16976.00586 -7792.26074  177   121    94
78091.07813 16115.84473 -7528.11426  177   121    94
77901.78906 15303.98926 -7376.05762  176   121    94
77712.51563 14492.10352 -7223.99951  176   121    95
77506.08594 13613.47070 -7080.37988  176   121    95
77299.61719 12734.80664 -6936.76318  176   121    95
77031.89844 11865.05078 -6773.53271  176   121    95
76764.18750 10995.30371 -6610.30029  176   121    95
76498.00781 10078.42188 -6380.78271  176   122    95
76231.82031 9161.55469 -6151.27148  176   122    95
75894.35156 8235.06543 -5884.62158  176   122    95
75556.90625 7308.56934 -5617.97266  176   122    95
75179.04688 6388.68018 -5327.51221  176   122    95
74801.15625 5468.83057 -5037.04541  176   122    95
74465.51563 4793.36621 -4815.30811  175   122    95
74129.91406 4117.86328 -4593.56152  175   122    95
73754.96094 3405.87012 -4303.85449  175   122    95
73379.96875 2693.86133 -4014.15283  175   122    95
72884.37500 1757.23145 -3590.83228  175   122    95
72388.75781 820.56232 -3167.49927  175   122    95
71803.96875 -289.32758 -2602.61572  174   122    95
71219.19531 -1399.19788 -2037.72058  174   122    95
70696.70313 -2352.50732 -1469.34949  174   122    95
70174.18750 -3305.80542 -900.96234  174   122    95
69726.73438 -4088.09009 -401.55573  174   122    95
69279.28125 -4870.33984 97.84521  174   122    94
68880.67969 -5538.43262 529.62213  174   122    94
68482.07031 -6206.47900 961.37976  173   122    94
68116.43750 -6793.81738 1331.28320  173   122    94
67750.74219 -7381.16406 1701.18591  173   122    94
67392.88281 -7961.59766 2043.62097  173   122    94
67034.97656 -8542.00781 2386.07642  173   122    94
66696.35156 -9100.80273 2687.81348  173   122    94
66357.71875 -9659.59473 2989.53296  173   122    95
66040.64063 -10189.04395 3254.80591  173   122    95
65723.54688 -10718.46973 3520.06738  173   122    95
65391.31641 -11247.12207 3729.83105  173   122    95
65059.12109 -11775.75586 3939.60596  173   122    95
64717.71875 -12257.45117 4093.03906  173   122    95
64376.36328 -12739.12793 4246.46191  173   122    95
63972.37109 -13323.65918 4401.40234  173   122    95
63568.38281 -13908.20117 4556.31934  173   122    95
63140.86328 -14478.11719 4625.76758  173   122    95
62713.34766 -15048.04004 4695.20801  173   122    95
62265.33203 -15645.26660 4724.07520  173   122    95
61817.32031 -16242.52051 4752.91895  172   122    95
61465.82422 -16854.81445 4765.85303  172   122    95
61114.31641 -17467.12891 4778.80322  172   123    95
60923.46094 -18102.58594 4795.43848  172   122    94
60733.00781 -18738.11914 4812.05615  172   123    94
60649.65625 -19462.90039 4796.50684  172   123    94
60566.59375 -20187.73438 4780.95605  172   123    94
60493.26953 -21031.73242 4688.73438  172   123    94
60419.96875 -21875.72852 4596.49023  172   122    94
60339.98438 -22926.28711 4359.99023  172   123    94
60260.46875 -23976.84766 4123.68701  172   123    94
60182.06250 -24998.89844 3915.60938  172   123    94
60102.56250 -26020.90820 3707.20117  171   123    94
60021.47656 -27020.83398 3518.62354  171   123    94
59940.51953 -28020.74219 3330.08447  171   123    94
59855.03906 -29012.91602 3150.84082  171   123    94
59770.58203 -30005.10352 2971.52515  171   123    94
78198.64844 23004.87500 -10184.56348  178   122    95
78162.47656 22181.69727 -9952.22168  178   122    95
78126.35938 21358.49414 -9719.88477  177   122    95
78110.19531 20494.61914 -9425.85547  177   121    95
78094.07813 19630.67383 -9131.84082  177   121    95
78088.06250 18684.77539 -8745.36719  177   121    95
78082.03906 17738.90039 -8358.91602  177   121    95
77949.55469 16869.39258 -8059.29932  177   121    95
77817.03125 15999.88379 -7759.69189  177   122    95
77667.04688 15232.69043 -7565.59912  177   122    95
77517.01563 14465.52832 -7371.50000  177   122    95
77319.12500 13621.03027 -7195.71777  177   122    95
77121.29688 12776.55566 -7019.91943  177   122    95
76868.02344 11941.18555 -6883.25977  177   122    95
76614.78125 11105.83105 -6746.59668  176   122    95
76367.79688 10249.95410 -6492.96924  176   122    95
76120.83594 9394.14648 -6239.35352  176   122    95
75804.32813 8544.59180 -6014.91748  176   122    95
75487.78125 7695.00537 -5790.50391  176   122    95
75080.01563 6671.31152 -5468.01855  176   122    95
74672.28125 5647.63379 -5145.52393  176   122    95
74354.26563 5019.64502 -4952.09668  176   122    95
74036.27344 4391.60156 -4758.66748  176   122    95
73725.95313 3809.42456 -4533.40039  176   122    95
73415.64844 3227.25513 -4308.12793  175   122    95
72954.82031 2328.63623 -3927.63989  175   122    95
72493.97656 1430.04077 -3547.15918  175   122    95
71944.77344 345.20804 -3009.93237  175   122    95
71395.52344 -739.65222 -2472.70654  175   122    95
70903.35938 -1661.11658 -1946.68945  175   122    95
70411.27344 -2582.53369 -1420.64819  175   122    95
69959.25000 -3384.85596 -930.05371  174   122    95
69507.25000 -4187.13916 -439.45193  174   122    95
69097.24219 -4891.17529 -20.22493  174   122    95
68687.25000 -5595.20361 399.02325  174   122    95
68316.77344 -6190.26807 766.11194  174   122    95
67946.31250 -6785.30176 1133.17883  174   122    95
67569.03125 -7417.41650 1482.49524  174   122    95
67191.72656 -8049.51221 1831.82751  174   122    95
66855.15625 -8605.75586 2125.97339  174   122    95
66518.54688 -9161.95410 2420.10229  174   123    95
66187.13281 -9709.10742 2678.61670  174   123    95
65855.67969 -10256.22656 2937.14136  174   123    95
65521.13672 -10789.54883 3147.14648  174   123    95
65186.59375 -11322.86328 3357.15161  174   123    95
64831.91016 -11840.59961 3522.86377  174   123    95
64477.25391 -12358.35938 3688.55957  174   123    95
64071.50781 -12946.33105 3847.54199  174   123    95
63665.75391 -13534.34473 4006.52271  174   123    95
63233.46094 -14115.36914 4088.85913  174   123    95
62801.18750 -14696.40137 4171.19141  173   123    95
62344.34375 -15319.94336 4191.04199  173   123    95
61887.50000 -15943.55957 4210.90381  173   123    95
61526.48438 -16562.72656 4222.48877  173   123    95
61165.46875 -17181.91016 4234.06787  173   123    95
60971.54297 -17817.65039 4252.81592  173   123    95
60778.16016 -18453.49609 4271.54248  173   123    95
60696.41797 -19112.03711 4289.09473  173   123    95
60614.80859 -19770.61133 4306.64063  173   123    95
60537.19531 -20656.21875 4180.01416  173   123    95
60459.36328 -21541.80664 4053.33472  173   123    95
60383.78516 -22609.85547 3774.42529  173   123    95
60308.62891 -23677.96094 3495.57422  172   123    95
60232.69531 -24702.09180 3265.87988  172   123    95
60155.89844 -25726.15430 3035.99121  172   123    95
60077.70703 -26721.44727 2831.30103  172   124    95
59998.33203 -27716.77539 2626.13892  172   124    95
59912.92969 -28704.98633 2433.37549  172   124    95
59824.97266 -29692.90820 2240.28345  172   124    95
77946.32031 22239.04102 -10575.24707  178   122    95
77901.95313 21411.20508 -10337.75293  178   122    95
77868.06250 20551.67578 -10050.08594  178   122    95
77834.17969 19692.16211 -9762.42188  177   122    95
77798.87500 18786.85938 -9420.21289  177   122    95
77763.61719 17881.57422 -9077.99512  177   122    95
77644.66406 17026.06445 -8791.76465  177   122    95
77525.70313 16170.53027 -8505.52441  177   122    95
77360.23438 15383.13574 -8278.05176  177   122    95
77194.79688 14595.73340 -8050.58398  177   122    95
77008.83594 13761.61816 -7848.18750  177   122    95
76822.88281 12927.37012 -7645.79248  177   122    95
76593.41406 12098.52930 -7460.01709  177   122    95
76363.87500 11269.66602 -7274.25439  177   122    95
76121.04688 10434.66504 -7006.45215  177   122    95
75878.22656 9599.67090 -6738.65186  177   122    95
75595.23438 8767.73926 -6465.54590  177   123    96
75312.25000 7935.79150 -6192.44434  177   123    96
74986.89063 7015.74023 -5837.97656  176   123    96
74661.51563 6095.69727 -5483.50342  176   123    96
74346.82031 5430.89307 -5265.04346  176   123    96
74032.13281 4766.04199 -5046.59131  176   123    96
73714.00781 4142.89648 -4818.74414  176   123    96
73395.88281 3519.75098 -4590.88086  176   123    96
72981.35938 2705.60278 -4252.92334  176   123    96
72566.76563 1891.47742 -3914.97534  176   123    96
72060.00781 878.41260 -3421.00220  176   123    96
71553.26563 -134.65611 -2927.03687  175   123    96
71077.61719 -1042.12610 -2427.93872  175   123    96
70601.98438 -1949.53357 -1928.86218  175   123    96
70157.48438 -2752.92017 -1459.59912  175   123    96
69713.02344 -3556.34180 -990.33856  175   123    96
69303.51563 -4273.72754 -574.61871  175   123    96
68893.94531 -4991.21143 -158.90944  175   123    96
68504.42969 -5637.37842 217.94444  175   123    96
68114.87500 -6283.54150 594.81860  174   123    96
67731.92969 -6933.63135 948.92554  174   123    96
67348.96875 -7583.72949 1303.03479  174   123    96
67007.65625 -8150.54736 1594.42078  174   123    96
66666.30469 -8717.40039 1885.83887  174   123    96
66323.01563 -9285.40527 2137.27661  174   123    96
65979.77344 -9853.45313 2388.69604  174   123    96
